ply
format ascii 1.0
element vertex 160
property float x
property float y
property float z
end_header
0.15013446882159742 -0.1575 21.030059810691732
0.15013446882159742 -0.147 21.030059810691732
0.15013446882159742 -0.13649999999999998 21.030059810691732
0.12917363805473803 -0.0315 21.031341830021965
2.146143179178572 1.9029999999999998 21.90170291220446
2.5926789501133842 1.5959999999999999 20.84823486201263
2.6030567459732956 1.5959999999999999 20.846637566457638
2.5926789501133842 1.6065 20.84823486201263
2.6030567459732956 1.6065 20.846637566457638
2.6030567459732956 1.617 20.846637566457638
3.310737208864021 -0.0315 20.744026709726423
3.310737208864021 -0.021 20.744026709726423
3.3210613853934423 -0.021 20.742113236708757
3.310737208864021 -0.0105 20.744026709726423
3.3210613853934423 -0.0105 20.742113236708757
3.310737208864021 0.0 20.744026709726423
3.3210613853934423 0.0 20.742113236708757
3.3004130323345993 0.0105 20.745940182744093
3.310737208864021 0.0105 20.744026709726423
3.3210613853934423 0.0105 20.742113236708757
3.3004130323345993 0.021 20.745940182744093
3.310737208864021 0.021 20.744026709726423
3.3210613853934423 0.021 20.742113236708757
3.3004130323345993 0.0315 20.745940182744093
3.310737208864021 0.0315 20.744026709726423
3.3210613853934423 0.0315 20.742113236708757
3.3004130323345993 0.042 20.745940182744093
3.310737208864021 0.042 20.744026709726423
3.3210613853934423 0.042 20.742113236708757
3.2900888558051777 0.0525 20.74785365576176
3.3004130323345993 0.0525 20.745940182744093
3.310737208864021 0.0525 20.744026709726423
3.3210613853934423 0.0525 20.742113236708757
3.2900888558051777 0.063 20.74785365576176
3.3004130323345993 0.063 20.745940182744093
3.310737208864021 0.063 20.744026709726423
3.3210613853934423 0.063 20.742113236708757
3.2900888558051777 0.0735 20.74785365576176
3.3004130323345993 0.0735 20.745940182744093
3.310737208864021 0.0735 20.744026709726423
3.3210613853934423 0.0735 20.742113236708757
3.279764679275756 0.084 20.74976712877943
3.2900888558051777 0.084 20.74785365576176
3.3004130323345993 0.084 20.745940182744093
3.310737208864021 0.084 20.744026709726423
3.2900888558051777 0.09449999999999999 20.74785365576176
3.3004130323345993 0.09449999999999999 20.745940182744093
3.3210613853934423 0.09449999999999999 20.742113236708757
3.2900888558051777 0.105 20.74785365576176
3.3004130323345993 0.105 20.745940182744093
3.310737208864021 0.105 20.744026709726423
3.3210613853934423 0.105 20.742113236708757
3.2900888558051777 0.11549999999999999 20.74785365576176
3.3004130323345993 0.11549999999999999 20.745940182744093
3.2900888558051777 0.126 20.74785365576176
3.3004130323345993 0.126 20.745940182744093
3.2900888558051777 0.13649999999999998 20.74785365576176
3.3004130323345993 0.13649999999999998 20.745940182744093
3.754937889897586 -0.05 19.6507109653318
3.7647102009622126 -0.05 19.648589188610234
3.754937889897586 -0.04 19.6507109653318
3.7647102009622126 -0.04 19.648589188610234
3.754937889897586 -0.03 19.6507109653318
3.754937889897586 -0.02 19.6507109653318
3.7647102009622126 -0.02 19.648589188610234
3.754937889897586 -0.01 19.6507109653318
3.784254823091466 0.0 19.644345635167106
3.7940271341560927 0.0 19.642223858445544
3.784254823091466 0.01 19.644345635167106
3.7940271341560927 0.01 19.642223858445544
3.784254823091466 0.02 19.644345635167106
3.7940271341560927 0.02 19.642223858445544
3.754937889897586 0.04 19.6507109653318
3.7647102009622126 0.04 19.648589188610234
3.754937889897586 0.07 19.6507109653318
3.7647102009622126 0.07 19.648589188610234
3.7744825120268395 0.07 19.646467411888672
3.754937889897586 0.08 19.6507109653318
3.7647102009622126 0.08 19.648589188610234
3.7744825120268395 0.08 19.646467411888672
3.754937889897586 0.09 19.6507109653318
3.7647102009622126 0.09 19.648589188610234
3.7744825120268395 0.09 19.646467411888672
3.784254823091466 0.09 19.644345635167106
3.754937889897586 0.1 19.6507109653318
3.7647102009622126 0.1 19.648589188610234
3.7744825120268395 0.1 19.646467411888672
3.784254823091466 0.1 19.644345635167106
3.754937889897586 0.10999999999999999 19.6507109653318
3.7647102009622126 0.10999999999999999 19.648589188610234
3.7744825120268395 0.10999999999999999 19.646467411888672
3.784254823091466 0.10999999999999999 19.644345635167106
3.754937889897586 0.12 19.6507109653318
3.7647102009622126 0.12 19.648589188610234
3.7744825120268395 0.12 19.646467411888672
3.784254823091466 0.12 19.644345635167106
3.754937889897586 0.13 19.6507109653318
3.7647102009622126 0.13 19.648589188610234
3.7744825120268395 0.13 19.646467411888672
3.784254823091466 0.13 19.644345635167106
3.7158486456390785 0.2 19.659198072218057
3.7158486456390785 0.21000000000000002 19.659198072218057
3.7158486456390785 0.21999999999999997 19.659198072218057
3.7256209567037053 0.21999999999999997 19.657076295496495
4.172496784011076 -0.0475 18.541338667620987
4.809922207076644 -0.1045 18.38463949502059
4.800778882330334 -0.095 18.387218179294308
4.828208856569264 -0.057 18.379482126473153
4.828208856569264 -0.0475 18.379482126473153
4.819065531822954 -0.038 18.38206081074687
4.828208856569264 -0.038 18.379482126473153
4.819065531822954 -0.0285 18.38206081074687
4.828208856569264 -0.0285 18.379482126473153
4.837352181315573 -0.0285 18.376903442199435
4.809922207076644 -0.019 18.38463949502059
4.819065531822954 -0.019 18.38206081074687
4.828208856569264 -0.019 18.379482126473153
4.837352181315573 -0.019 18.376903442199435
4.809922207076644 -0.0095 18.38463949502059
4.819065531822954 -0.0095 18.38206081074687
4.828208856569264 -0.0095 18.379482126473153
4.837352181315573 -0.0095 18.376903442199435
4.809922207076644 0.0 18.38463949502059
4.819065531822954 0.0 18.38206081074687
4.828208856569264 0.0 18.379482126473153
4.837352181315573 0.0 18.376903442199435
4.846495506061883 0.0 18.374324757925717
4.809922207076644 0.0095 18.38463949502059
4.819065531822954 0.0095 18.38206081074687
4.828208856569264 0.0095 18.379482126473153
4.837352181315573 0.0095 18.376903442199435
4.846495506061883 0.0095 18.374324757925717
4.809922207076644 0.019 18.38463949502059
4.819065531822954 0.019 18.38206081074687
4.828208856569264 0.019 18.379482126473153
4.837352181315573 0.019 18.376903442199435
4.846495506061883 0.019 18.374324757925717
4.809922207076644 0.0285 18.38463949502059
4.819065531822954 0.0285 18.38206081074687
4.828208856569264 0.0285 18.379482126473153
4.837352181315573 0.0285 18.376903442199435
4.846495506061883 0.0285 18.374324757925717
4.809922207076644 0.038 18.38463949502059
4.819065531822954 0.038 18.38206081074687
4.828208856569264 0.038 18.379482126473153
4.837352181315573 0.038 18.376903442199435
4.846495506061883 0.038 18.374324757925717
4.809922207076644 0.0475 18.38463949502059
4.819065531822954 0.0475 18.38206081074687
4.828208856569264 0.0475 18.379482126473153
4.837352181315573 0.0475 18.376903442199435
4.846495506061883 0.0475 18.374324757925717
4.800778882330334 0.057 18.387218179294308
4.809922207076644 0.057 18.38463949502059
4.819065531822954 0.057 18.38206081074687
4.828208856569264 0.057 18.379482126473153
4.837352181315573 0.057 18.376903442199435
4.846495506061883 0.057 18.374324757925717
4.800778882330334 0.0665 18.387218179294308
4.809922207076644 0.0665 18.38463949502059
