ply
format ascii 1.0
element vertex 160
property float x
property float y
property float z
end_header
-155.19221163871106 35.0 71.68945143244937
-155.19221163871106 45.0 71.68945143244937
-159.92686228618658 90.0 73.29664875896518
-151.37136116406714 0.0 77.27333181286419
-156.31086466639746 5.277777777777778 79.13242928800402
-151.37136116406714 5.277777777777778 77.27333181286419
-156.31086466639746 10.555555555555555 79.13242928800402
-151.37136116406714 10.555555555555555 77.27333181286419
-156.31086466639746 15.833333333333332 79.13242928800402
-151.37136116406714 15.833333333333332 77.27333181286419
-151.37136116406714 21.11111111111111 77.27333181286419
-151.37136116406714 26.38888888888889 77.27333181286419
-156.31086466639746 31.666666666666664 79.13242928800402
-151.37136116406714 31.666666666666664 77.27333181286419
-156.31086466639746 36.94444444444444 79.13242928800402
-151.37136116406714 36.94444444444444 77.27333181286419
-156.31086466639746 42.22222222222222 79.13242928800402
-151.37136116406714 42.22222222222222 77.27333181286419
-156.31086466639746 47.5 79.13242928800402
-151.37136116406714 47.5 77.27333181286419
-156.31086466639746 52.77777777777778 79.13242928800402
-151.37136116406714 52.77777777777778 77.27333181286419
-156.31086466639746 58.05555555555555 79.13242928800402
-151.37136116406714 58.05555555555555 77.27333181286419
-156.31086466639746 63.33333333333333 79.13242928800402
-151.37136116406714 63.33333333333333 77.27333181286419
-156.31086466639746 68.61111111111111 79.13242928800402
-151.37136116406714 68.61111111111111 77.27333181286419
-156.31086466639746 73.88888888888889 79.13242928800402
-143.88597163204884 -5.277777777777778 80.16497269078053
-143.88597163204884 0.0 80.16497269078053
-143.88597163204884 5.277777777777778 80.16497269078053
-143.88597163204884 10.555555555555555 80.16497269078053
-143.88597163204884 15.833333333333332 80.16497269078053
-143.88597163204884 21.11111111111111 80.16497269078053
-143.88597163204884 31.666666666666664 80.16497269078053
-143.88597163204884 36.94444444444444 80.16497269078053
-143.88597163204884 42.22222222222222 80.16497269078053
-148.76200249808062 47.5 82.18469080604072
-143.88597163204884 47.5 80.16497269078053
-148.76200249808062 52.77777777777778 82.18469080604072
-143.88597163204884 52.77777777777778 80.16497269078053
-148.76200249808062 58.05555555555555 82.18469080604072
-143.88597163204884 58.05555555555555 80.16497269078053
-148.76200249808062 63.33333333333333 82.18469080604072
-143.88597163204884 63.33333333333333 80.16497269078053
-148.76200249808062 68.61111111111111 82.18469080604072
-143.88597163204884 68.61111111111111 80.16497269078053
-148.76200249808062 73.88888888888889 82.18469080604072
-143.88597163204884 73.88888888888889 80.16497269078053
-148.76200249808062 79.16666666666667 82.18469080604072
-143.88597163204884 79.16666666666667 80.16497269078053
-148.76200249808062 84.44444444444444 82.18469080604072
-143.88597163204884 84.44444444444444 80.16497269078053
-153.6380333641124 89.72222222222223 84.20440892130091
-148.76200249808062 89.72222222222223 82.18469080604072
-143.88597163204884 89.72222222222223 80.16497269078053
-153.6380333641124 95.0 84.20440892130091
-148.76200249808062 95.0 82.18469080604072
-143.88597163204884 95.0 80.16497269078053
-153.6380333641124 100.27777777777777 84.20440892130091
-148.76200249808062 100.27777777777777 82.18469080604072
-143.88597163204884 100.27777777777777 80.16497269078053
-153.6380333641124 105.55555555555556 84.20440892130091
-148.76200249808062 105.55555555555556 82.18469080604072
-143.88597163204884 105.55555555555556 80.16497269078053
-153.6380333641124 110.83333333333333 84.20440892130091
-148.76200249808062 110.83333333333333 82.18469080604072
-153.6380333641124 116.1111111111111 84.20440892130091
-148.76200249808062 116.1111111111111 82.18469080604072
-148.76200249808062 121.38888888888889 82.18469080604072
-148.76200249808062 126.66666666666666 82.18469080604072
-158.5140642301442 153.05555555555554 86.22412703656111
-158.5140642301442 163.61111111111111 86.22412703656111
-131.57133519248532 31.666666666666664 80.4735164018972
-136.378672046236 36.94444444444444 82.6516923925315
-131.57133519248532 36.94444444444444 80.4735164018972
-136.378672046236 42.22222222222222 82.6516923925315
-131.57133519248532 42.22222222222222 80.4735164018972
-136.378672046236 47.5 82.6516923925315
-131.57133519248532 47.5 80.4735164018972
-136.378672046236 52.77777777777778 82.6516923925315
-131.57133519248532 52.77777777777778 80.4735164018972
-136.378672046236 58.05555555555555 82.6516923925315
-131.57133519248532 58.05555555555555 80.4735164018972
-141.18600889998663 63.33333333333333 84.8298683831658
-136.378672046236 63.33333333333333 82.6516923925315
-131.57133519248532 63.33333333333333 80.4735164018972
-141.18600889998663 68.61111111111111 84.8298683831658
-136.378672046236 68.61111111111111 82.6516923925315
-131.57133519248532 68.61111111111111 80.4735164018972
-141.18600889998663 73.88888888888889 84.8298683831658
-136.378672046236 73.88888888888889 82.6516923925315
-131.57133519248532 73.88888888888889 80.4735164018972
-141.18600889998663 79.16666666666667 84.8298683831658
-136.378672046236 79.16666666666667 82.6516923925315
-131.57133519248532 79.16666666666667 80.4735164018972
-141.18600889998663 84.44444444444444 84.8298683831658
-136.378672046236 84.44444444444444 82.6516923925315
-131.57133519248532 84.44444444444444 80.4735164018972
-141.18600889998663 89.72222222222223 84.8298683831658
-136.378672046236 89.72222222222223 82.6516923925315
-141.18600889998663 95.0 84.8298683831658
-136.378672046236 95.0 82.6516923925315
-141.18600889998663 100.27777777777777 84.8298683831658
-136.378672046236 100.27777777777777 82.6516923925315
-141.18600889998663 105.55555555555556 84.8298683831658
-136.378672046236 105.55555555555556 82.6516923925315
-136.378672046236 110.83333333333333 82.6516923925315
-145.9933457537373 131.94444444444446 87.0080443738001
-145.9933457537373 137.22222222222223 87.0080443738001
-141.18600889998663 137.22222222222223 84.8298683831658
-145.9933457537373 142.5 87.0080443738001
-145.9933457537373 147.77777777777777 87.0080443738001
-150.80068260748794 153.05555555555554 89.18622036443442
-145.9933457537373 153.05555555555554 87.0080443738001
-145.9933457537373 158.33333333333334 87.0080443738001
-150.80068260748794 168.88888888888889 89.18622036443442
-155.6080194612386 179.44444444444446 91.36439635506873
-124.1343755790029 -89.72222222222223 82.40102186592904
-124.1343755790029 -79.16666666666667 82.40102186592904
-124.1343755790029 -73.88888888888889 82.40102186592904
-124.1343755790029 -68.61111111111111 82.40102186592904
-124.1343755790029 -63.33333333333333 82.40102186592904
-124.1343755790029 -58.05555555555555 82.40102186592904
-124.1343755790029 -36.94444444444444 82.40102186592904
-124.1343755790029 -26.38888888888889 82.40102186592904
-124.1343755790029 -21.11111111111111 82.40102186592904
-119.40088055424705 -21.11111111111111 80.06672044532877
-124.1343755790029 -15.833333333333332 82.40102186592904
-119.40088055424705 -15.833333333333332 80.06672044532877
-124.1343755790029 -10.555555555555555 82.40102186592904
-119.40088055424705 -10.555555555555555 80.06672044532877
-124.1343755790029 -5.277777777777778 82.40102186592904
-124.1343755790029 0.0 82.40102186592904
-119.40088055424705 0.0 80.06672044532877
-124.1343755790029 5.277777777777778 82.40102186592904
-119.40088055424705 5.277777777777778 80.06672044532877
-124.1343755790029 10.555555555555555 82.40102186592904
-119.40088055424705 10.555555555555555 80.06672044532877
-128.86787060375875 15.833333333333332 84.73532328652932
-124.1343755790029 15.833333333333332 82.40102186592904
-119.40088055424705 15.833333333333332 80.06672044532877
-128.86787060375875 21.11111111111111 84.73532328652932
-124.1343755790029 21.11111111111111 82.40102186592904
-119.40088055424705 21.11111111111111 80.06672044532877
-128.86787060375875 26.38888888888889 84.73532328652932
-124.1343755790029 26.38888888888889 82.40102186592904
-119.40088055424705 26.38888888888889 80.06672044532877
-128.86787060375875 31.666666666666664 84.73532328652932
-124.1343755790029 31.666666666666664 82.40102186592904
-128.86787060375875 36.94444444444444 84.73532328652932
-124.1343755790029 36.94444444444444 82.40102186592904
-128.86787060375875 42.22222222222222 84.73532328652932
-124.1343755790029 42.22222222222222 82.40102186592904
-128.86787060375875 47.5 84.73532328652932
-124.1343755790029 47.5 82.40102186592904
-128.86787060375875 52.77777777777778 84.73532328652932
-124.1343755790029 52.77777777777778 82.40102186592904
-128.86787060375875 58.05555555555555 84.73532328652932
